# .PCD v0.7 - Point Cloud Data file format
VERSION 0.7
FIELDS x y z intensity normal_x normal_y normal_z curvature
SIZE 4 4 4 4 4 4 4 4
TYPE F F F F F F F F
COUNT 1 1 1 1 1 1 1 1
WIDTH 1129
HEIGHT 1
VIEWPOINT 0 0 0 1 0 0 0
POINTS 1129
DATA ascii
23.145409 -12.422597 8.3260679 21 0 0 0 0
23.257454 -12.602498 9.5907927 19 0 0 0 0
23.13278 -12.495212 8.355794 26 0 0 0 0
23.245701 -12.685076 9.6304159 19 0 0 0 0
23.117163 -12.567671 8.3813925 29 0 0 0 0
23.224199 -12.762358 9.6562233 19 0 0 0 0
23.112415 -12.646468 8.4139032 29 0 0 0 0
23.208841 -12.842678 9.6844959 18 0 0 0 0
23.096151 -12.716743 8.4332733 29 0 0 0 0
23.191875 -12.922501 9.7076521 18 0 0 0 0
23.086023 -12.792368 8.4542961 27 0 0 0 0
23.177996 -13.005039 9.7311382 18 0 0 0 0
23.084595 -12.874465 8.4801626 27 0 0 0 0
23.155329 -13.078284 9.7405043 18 0 0 0 0
23.068239 -12.944231 8.4894466 26 0 0 0 0
23.139158 -13.158055 9.7536421 18 0 0 0 0
23.055784 -13.019316 8.5003071 26 0 0 0 0
23.116333 -13.230625 9.7549143 18 0 0 0 0
23.039633 -13.08727 8.504425 26 0 0 0 0
23.108177 -13.314601 9.767663 18 0 0 0 0
23.025778 -13.157734 8.5058174 26 0 0 0 0
23.084272 -13.385954 9.7617702 18 0 0 0 0
23.006414 -13.22238 8.5005159 26 0 0 0 0
23.048592 -13.445546 9.7384415 13 0 0 0 0
22.986752 -13.28602 8.491107 26 0 0 0 0
22.997717 -13.489575 9.6942348 13 0 0 0 0
22.962469 -13.346609 8.4742613 27 0 0 0 0
22.887953 -13.479944 9.5873795 12 0 0 0 0
22.931892 -13.398861 8.4484777 27 0 0 0 0
22.755184 -13.451042 9.4540577 16 0 0 0 0
22.908306 -13.456837 8.4254122 28 0 0 0 0
22.677456 -13.46337 9.3701725 29 0 0 0 0
22.894342 -13.519515 8.4070721 29 0 0 0 0
22.982573 -13.815808 9.6706953 17 0 0 0 0
22.755058 -13.47245 8.2750311 21 0 0 0 0
22.96582 -13.881144 9.6414404 17 0 0 0 0
22.654175 -13.453535 8.1737156 23 0 0 0 0
22.948809 -13.945553 9.6070786 18 0 0 0 0
22.623814 -13.496787 8.1321278 30 0 0 0 0
22.934952 -14.010533 9.5718651 18 0 0 0 0
22.868973 -13.786627 8.3260422 5 0 0 0 0
22.919985 -14.071902 9.531292 18 0 0 0 0
22.862936 -13.850687 8.2980366 1 0 0 0 0
22.902594 -14.13017 9.4843559 18 0 0 0 0
22.880268 -13.932623 8.2863503 0 0 0 0 0
22.891378 -14.189247 9.4396982 18 0 0 0 0
22.996935 -14.10718 8.3569593 0 0 0 0 0
22.868782 -14.235514 9.3795385 18 0 0 0 0
22.960424 -14.137542 8.2909975 0 0 0 0 0
22.859182 -14.292519 9.327733 18 0 0 0 0
20.296537 -11.689328 5.9796176 0 0 0 0 0
22.845457 -14.34105 9.2690592 18 0 0 0 0
20.315485 -11.748417 5.9680896 8 0 0 0 0
22.825039 -14.382298 9.1995153 18 0 0 0 0
20.322132 -11.794155 5.9419889 25 0 0 0 0
22.81204 -14.4283 9.133625 18 0 0 0 0
20.317223 -11.828979 5.9045563 37 0 0 0 0
22.800917 -14.470849 9.0665045 18 0 0 0 0
20.307201 -11.856933 5.8623638 38 0 0 0 0
22.780972 -14.504019 8.9862614 18 0 0 0 0
20.298204 -11.883366 5.8170662 40 0 0 0 0
22.777409 -14.549339 8.9196196 19 0 0 0 0
20.295313 -11.912752 5.7752285 40 0 0 0 0
22.761578 -14.579081 8.8382196 18 0 0 0 0
20.286024 -11.935864 5.7266312 37 0 0 0 0
22.753199 -14.61366 8.7594786 19 0 0 0 0
20.272112 -11.951305 5.6722202 36 0 0 0 0
22.738033 -14.638393 8.673666 19 0 0 0 0
20.271624 -11.978827 5.6262889 39 0 0 0 0
22.687071 -14.622066 8.551116 23 0 0 0 0
20.262575 -11.995588 5.5731521 37 0 0 0 0
22.652878 -14.621461 8.4424801 24 0 0 0 0
20.253626 -12.010287 5.517839 37 0 0 0 0
22.665588 -14.66421 8.3721418 7 0 0 0 0
20.248224 -12.026817 5.4627948 40 0 0 0 0
22.670622 -14.696656 8.2946663 0 0 0 0 0
20.243284 -12.042462 5.407692 40 0 0 0 0
22.689112 -14.741263 8.2246733 0 0 0 0 0
20.234573 -12.050811 5.3478394 38 0 0 0 0
20.217899 -12.197889 5.9941196 5 0 0 0 0
20.227604 -12.059991 5.2891178 37 0 0 0 0
20.223412 -12.215953 5.933537 26 0 0 0 0
20.222048 -12.06891 5.2284122 38 0 0 0 0
20.220783 -12.2246 5.8658767 32 0 0 0 0
20.219582 -12.078233 5.1688461 41 0 0 0 0
20.216057 -12.228928 5.7957783 36 0 0 0 0
20.213242 -12.082321 5.1067071 39 0 0 0 0
20.213995 -12.232316 5.7266932 35 0 0 0 0
20.207821 -12.084642 5.0444517 39 0 0 0 0
20.204676 -12.226748 5.6505976 38 0 0 0 0
20.202898 -12.086159 4.9811401 39 0 0 0 0
20.205307 -12.22928 5.5815291 36 0 0 0 0
20.198435 -12.086789 4.9177704 42 0 0 0 0
20.204268 -12.228836 5.510149 38 0 0 0 0
20.201 -12.090912 4.8569307 45 0 0 0 0
20.197716 -12.220265 5.432888 39 0 0 0 0
20.198874 -12.08951 4.7914591 44 0 0 0 0
20.191198 -12.209465 5.355443 40 0 0 0 0
20.195862 -12.08534 4.7267318 45 0 0 0 0
20.191082 -12.204939 5.2847557 39 0 0 0 0
20.190752 -12.07685 4.6595659 46 0 0 0 0
20.188967 -12.194032 5.2094541 43 0 0 0 0
20.189156 -12.070107 4.5936656 50 0 0 0 0
20.189838 -12.185589 5.1374683 42 0 0 0 0
20.191433 -12.066285 4.5311484 46 0 0 0 0
20.183851 -12.169448 5.0595937 41 0 0 0 0
20.192923 -12.059944 4.4663873 43 0 0 0 0
20.18174 -12.153918 4.9859142 40 0 0 0 0
20.192251 -12.049119 4.4011803 50 0 0 0 0
20.184488 -12.142016 4.9126973 45 0 0 0 0
20.186852 -12.032684 4.3323374 45 0 0 0 0
20.183758 -12.123829 4.838841 44 0 0 0 0
20.188871 -12.021002 4.2671471 47 0 0 0 0
20.186081 -12.108274 4.7663083 43 0 0 0 0
20.190041 -12.006634 4.201705 47 0 0 0 0
20.190111 -12.093466 4.6959028 42 0 0 0 0
20.184282 -11.984401 4.1323657 50 0 0 0 0
20.186823 -12.069534 4.6204786 48 0 0 0 0
20.188046 -11.971238 4.0691171 46 0 0 0 0
20.191347 -12.051612 4.549829 45 0 0 0 0
20.188429 -11.952039 4.0022416 46 0 0 0 0
20.191113 -12.028 4.4765396 41 0 0 0 0
20.186153 -11.929157 3.9359748 45 0 0 0 0
20.194818 -12.005164 4.4054527 47 0 0 0 0
20.19087 -11.911995 3.8724236 47 0 0 0 0
20.196325 -11.980072 4.3341055 42 0 0 0 0
20.193455 -11.890429 3.8074307 47 0 0 0 0
20.199997 -11.957152 4.2640147 44 0 0 0 0
20.195154 -11.868408 3.7423706 48 0 0 0 0
20.201965 -11.928863 4.1934195 49 0 0 0 0
20.197739 -11.844531 3.6781886 48 0 0 0 0
20.203077 -11.900198 4.1217604 45 0 0 0 0
20.195957 -11.816223 3.612489 45 0 0 0 0
20.207605 -11.873029 4.0543551 45 0 0 0 0
20.202452 -11.79304 3.5515056 46 0 0 0 0
20.209574 -11.842427 3.9845712 46 0 0 0 0
20.202837 -11.764594 3.487874 48 0 0 0 0
20.209736 -11.808516 3.9164591 45 0 0 0 0
20.212843 -11.743156 3.4281554 45 0 0 0 0
20.217316 -11.781666 3.8511887 46 0 0 0 0
20.207088 -11.707054 3.363683 44 0 0 0 0
20.222271 -11.751217 3.7855315 45 0 0 0 0
20.278563 -11.741802 3.3307545 33 0 0 0 0
20.227652 -11.719798 3.7208114 45 0 0 0 0
20.409765 -11.831903 3.3234842 32 0 0 0 0
20.23172 -11.68658 3.6558981 45 0 0 0 0
20.468666 -11.852636 3.2839515 46 0 0 0 0
20.235821 -11.651133 3.5907996 49 0 0 0 0
20.475721 -11.821878 3.2223532 53 0 0 0 0
20.239363 -11.616322 3.5287483 47 0 0 0 0
20.481825 -11.790497 3.1626797 51 0 0 0 0
20.24123 -11.578534 3.4643853 45 0 0 0 0
20.42202 -11.696027 3.0775042 52 0 0 0 0
20.246078 -11.543214 3.4033391 46 0 0 0 0
20.370852 -11.610166 2.9983509 40 0 0 0 0
20.255333 -11.510092 3.3436246 40 0 0 0 0
20.391369 -11.589252 2.9450448 45 0 0 0 0
20.372332 -11.574035 3.3296857 32 0 0 0 0
20.37553 -11.53547 2.8807738 37 0 0 0 0
20.492023 -11.63943 3.3149519 29 0 0 0 0
20.393881 -11.510072 2.8270223 47 0 0 0 0
20.523548 -11.622864 3.2653813 48 0 0 0 0
20.413904 -11.485336 2.7763929 50 0 0 0 0
20.531096 -11.584368 3.2051616 50 0 0 0 0
20.420824 -11.449622 2.7204015 58 0 0 0 0
20.539925 -11.545277 3.1469417 51 0 0 0 0
20.393097 -11.381789 2.6555717 106 0 0 0 0
20.412331 -11.386559 3.03912 38 0 0 0 0
20.393841 -11.338336 2.5997357 107 0 0 0 0
20.386541 -11.317745 2.9702561 42 0 0 0 0
20.413368 -11.312091 2.5509727 53 0 0 0 0
20.441179 -11.318109 2.9318936 33 0 0 0 0
20.446987 -11.295218 2.5054617 87 0 0 0 0
20.435848 -11.267167 2.8732252 53 0 0 0 0
20.450291 -11.252885 2.4528155 72 0 0 0 0
20.445822 -11.227148 2.8209906 48 0 0 0 0
20.449654 -11.205153 2.3995893 46 0 0 0 0
20.475105 -11.203616 2.7737775 54 0 0 0 0
20.570568 -11.260265 2.379014 50 0 0 0 0
20.512699 -11.185288 2.7302835 16 0 0 0 0
20.572592 -11.213903 2.3259892 46 0 0 0 0
20.600218 -11.207603 2.7038667 51 0 0 0 0
20.584204 -11.174462 2.2778728 63 0 0 0 0
20.600533 -11.158183 2.6495268 54 0 0 0 0
20.591869 -11.131937 2.2283664 50 0 0 0 0
20.612207 -11.1166 2.6002302 52 0 0 0 0
20.599079 -11.087983 2.179729 52 0 0 0 0
20.619516 -11.070584 2.5494158 55 0 0 0 0
20.601425 -11.040401 2.1306295 58 0 0 0 0
20.624525 -11.024374 2.5005181 50 0 0 0 0
20.613396 -10.999825 2.0854423 50 0 0 0 0
20.635708 -10.981277 2.4530864 50 0 0 0 0
20.625397 -10.95933 2.039259 49 0 0 0 0
20.640749 -10.932838 2.4040039 49 0 0 0 0
20.631189 -10.913325 1.9934164 49 0 0 0 0
20.648809 -10.886945 2.3572407 62 0 0 0 0
20.639185 -10.867267 1.9486455 54 0 0 0 0
20.657297 -10.840084 2.311415 55 0 0 0 0
20.646255 -10.820666 1.9048034 61 0 0 0 0
20.66795 -10.795394 2.2668455 73 0 0 0 0
20.652441 -10.773609 1.8608942 48 0 0 0 0
20.679457 -10.751078 2.2233393 54 0 0 0 0
20.664734 -10.731812 1.8196322 52 0 0 0 0
20.685213 -10.702679 2.1793041 50 0 0 0 0
20.674397 -10.686415 1.7779837 68 0 0 0 0
20.694483 -10.656022 2.1365335 50 0 0 0 0
20.687117 -10.643648 1.737659 46 0 0 0 0
20.708122 -10.611484 2.0960908 60 0 0 0 0
20.687481 -10.590029 1.6960238 64 0 0 0 0
20.707668 -10.557575 2.0523968 55 0 0 0 0
20.699738 -10.545835 1.6565691 43 0 0 0 0
20.719498 -10.512038 2.012816 66 0 0 0 0
20.712847 -10.502015 1.6181775 41 0 0 0 0
20.732182 -10.466876 1.9742981 72 0 0 0 0
20.713964 -10.450831 1.5797828 27 0 0 0 0
20.74 -10.418087 1.9353187 54 0 0 0 0
20.727037 -10.404619 1.5431994 47 0 0 0 0
20.749098 -10.371017 1.8975295 81 0 0 0 0
20.740503 -10.361974 1.5069258 39 0 0 0 0
20.758196 -10.321631 1.8605503 63 0 0 0 0
20.756632 -10.318387 1.4716649 60 0 0 0 0
20.76989 -10.275761 1.8249537 62 0 0 0 0
20.741352 -10.253016 1.433558 8 0 0 0 0
20.77895 -10.226296 1.7889873 83 0 0 0 0
20.768908 -10.217431 1.4013649 31 0 0 0 0
20.79373 -10.180824 1.7545319 91 0 0 0 0
20.776558 -10.168221 1.3673682 62 0 0 0 0
20.802267 -10.132071 1.7206024 69 0 0 0 0
20.794357 -10.125295 1.3352324 59 0 0 0 0
20.810802 -10.083319 1.6866729 72 0 0 0 0
20.801514 -10.074576 1.3031018 78 0 0 0 0
20.828142 -10.038966 1.655407 72 0 0 0 0
20.809061 -10.025117 1.2720934 78 0 0 0 0
20.833523 -9.9873343 1.6231422 86 0 0 0 0
20.821043 -9.9779406 1.2414206 68 0 0 0 0
20.839788 -9.9361591 1.5909446 91 0 0 0 0
20.825006 -9.9265709 1.2111398 43 0 0 0 0
20.843752 -9.8847895 1.5606638 77 0 0 0 0
20.84185 -9.8807077 1.1817399 64 0 0 0 0
20.85882 -9.8380127 1.5311297 71 0 0 0 0
20.850214 -9.8315382 1.1527908 71 0 0 0 0
20.864096 -9.7861309 1.5018532 74 0 0 0 0
20.858118 -9.780942 1.1247119 40 0 0 0 0
20.875582 -9.7374439 1.4730468 81 0 0 0 0
20.869568 -9.732172 1.0969013 43 0 0 0 0
20.8892 -9.6908464 1.4464924 75 0 0 0 0
20.881413 -9.6846609 1.0702128 80 0 0 0 0
20.898842 -9.6410799 1.4195437 109 0 0 0 0
20.890594 -9.6334686 1.0441343 92 0 0 0 0
20.904509 -9.5881443 1.3922007 99 0 0 0 0
20.876215 -9.571209 1.0173657 9 0 0 0 0
20.922068 -9.5423203 1.3678482 70 0 0 0 0
20.907082 -9.5322313 0.99401987 80 0 0 0 0
20.921883 -9.4873648 1.3421534 89 0 0 0 0
20.921087 -9.48458 0.96939886 76 0 0 0 0
20.935001 -9.4392567 1.3174654 50 0 0 0 0
20.923069 -9.4294853 0.94577163 71 0 0 0 0
20.944508 -9.3891563 1.2945011 85 0 0 0 0
20.948116 -9.3885708 0.92307806 9 0 0 0 0
20.958874 -9.34268 1.2719982 91 0 0 0 0
20.955811 -9.3374729 0.90097553 77 0 0 0 0
20.972353 -9.2934361 1.2502395 81 0 0 0 0
20.959497 -9.283124 0.87947464 76 0 0 0 0
20.97295 -9.2386866 1.2276002 72 0 0 0 0
20.973368 -9.2351379 0.85883796 70 0 0 0 0
20.98324 -9.1887922 1.2076912 51 0 0 0 0
20.978792 -9.1816187 0.83846748 79 0 0 0 0
20.993988 -9.138011 1.1877233 63 0 0 0 0
20.991741 -9.1330929 0.81875974 71 0 0 0 0
21.006443 -9.0902882 1.1690705 51 0 0 0 0
21.000219 -9.082201 0.79971266 75 0 0 0 0
21.052219 -9.0563383 1.1526561 10 0 0 0 0
21.009552 -9.031682 0.78172874 59 0 0 0 0
21.014921 -8.9851999 1.1314275 85 0 0 0 0
21.021116 -8.9811907 0.76382005 62 0 0 0 0
21.037132 -8.9401846 1.1143239 94 0 0 0 0
21.036196 -8.9324408 0.74717575 62 0 0 0 0
21.049551 -8.8900661 1.0974784 83 0 0 0 0
21.048615 -8.8823214 0.73033029 50 0 0 0 0
21.083691 -8.8499308 1.0831798 18 0 0 0 0
21.060963 -8.8320389 0.71547782 45 0 0 0 0
21.073397 -8.7914362 1.0658982 78 0 0 0 0
21.067955 -8.7812424 0.70040685 53 0 0 0 0
21.083971 -8.7402372 1.0509107 78 0 0 0 0
21.083424 -8.7314396 0.68569583 39 0 0 0 0
21.096714 -8.6912098 1.0371794 62 0 0 0 0
21.089462 -8.6800203 0.67254996 55 0 0 0 0
21.104986 -8.6398182 1.0241088 67 0 0 0 0
21.102203 -8.6286812 0.65962988 59 0 0 0 0
21.118155 -8.5898209 1.0113146 90 0 0 0 0
21.121185 -8.5806189 0.64618319 62 0 0 0 0
21.133522 -8.542078 0.99878061 34 0 0 0 0
21.127613 -8.5281458 0.63497061 68 0 0 0 0
21.142185 -8.4896326 0.98764324 73 0 0 0 0
21.134928 -8.4761295 0.62382513 70 0 0 0 0
21.130373 -8.4311485 0.97533345 6 0 0 0 0
21.14579 -8.4259386 0.61294794 61 0 0 0 0
21.166147 -8.3892775 0.96596408 83 0 0 0 0
21.161089 -8.3757172 0.60321724 75 0 0 0 0
21.172966 -8.3380632 0.95587361 80 0 0 0 0
21.169222 -8.3239908 0.59413099 72 0 0 0 0
21.185108 -8.2872763 0.94699669 77 0 0 0 0
21.178207 -8.2726364 0.58610791 61 0 0 0 0
21.164682 -8.2274675 0.93831176 4 0 0 0 0
21.192089 -8.2226782 0.57836121 53 0 0 0 0
21.214188 -8.1891565 0.93169618 72 0 0 0 0
21.205969 -8.172718 0.57061452 54 0 0 0 0
21.222679 -8.1386051 0.9247281 74 0 0 0 0
21.219816 -8.1226759 0.56386381 61 0 0 0 0
21.197779 -8.0764332 0.91670436 5 0 0 0 0
21.22962 -8.0716105 0.55789995 56 0 0 0 0
21.242714 -8.037818 0.91292626 73 0 0 0 0
21.237612 -8.0195532 0.55279899 68 0 0 0 0
21.260532 -7.9886341 0.90738183 76 0 0 0 0
21.249123 -7.969234 0.54896134 71 0 0 0 0
21.264484 -7.9355512 0.90306681 79 0 0 0 0
21.266909 -7.9199629 0.54441208 27 0 0 0 0
21.278656 -7.8866005 0.89943033 72 0 0 0 0
21.271713 -7.8672523 0.54116023 56 0 0 0 0
21.260717 -7.8277454 0.89592749 5 0 0 0 0
21.278257 -7.815371 0.53903854 47 0 0 0 0
21.296709 -7.784399 0.893471 75 0 0 0 0
21.294199 -7.7650204 0.53634739 59 0 0 0 0
21.317055 -7.7362456 0.89211088 79 0 0 0 0
21.310503 -7.7158446 0.53577411 65 0 0 0 0
21.321331 -7.6842546 0.89091021 77 0 0 0 0
21.314743 -7.6637702 0.53556937 50 0 0 0 0
21.335825 -7.6340837 0.89119899 95 0 0 0 0
21.328382 -7.6132259 0.53479522 55 0 0 0 0
21.351633 -7.5857105 0.89168078 93 0 0 0 0
21.340607 -7.5629449 0.53600502 53 0 0 0 0
21.35985 -7.5344911 0.89268136 89 0 0 0 0
21.247864 -7.4884892 0.5398047 97 0 0 0 0
21.366716 -7.4837017 0.89367396 89 0 0 0 0
21.317631 -7.4533916 0.54114723 76 0 0 0 0
21.383802 -7.434731 0.89615589 53 0 0 0 0
21.366463 -7.4108343 0.54218817 59 0 0 0 0
21.391491 -7.3842311 0.89920759 78 0 0 0 0
21.384863 -7.3613501 0.54567438 60 0 0 0 0
21.40851 -7.335094 0.90368164 75 0 0 0 0
21.395176 -7.3121347 0.54992312 55 0 0 0 0
21.417049 -7.2849665 0.90779644 75 0 0 0 0
21.407265 -7.2615194 0.55511725 63 0 0 0 0
21.22035 -7.196382 0.90702742 25 0 0 0 0
21.127518 -7.1595125 0.56658459 65 0 0 0 0
21.147612 -7.1334834 0.91043895 47 0 0 0 0
21.141314 -7.111958 0.57309431 65 0 0 0 0
21.15204 -7.0844827 0.91652244 83 0 0 0 0
21.153759 -7.0648332 0.57959598 70 0 0 0 0
21.165342 -7.0377307 0.92408711 81 0 0 0 0
21.17153 -7.0181322 0.58731073 76 0 0 0 0
21.183111 -6.9910302 0.93180192 89 0 0 0 0
21.180786 -6.9703588 0.59566242 74 0 0 0 0
21.194143 -6.9441686 0.94028753 83 0 0 0 0
21.190041 -6.9225845 0.60401416 69 0 0 0 0
21.203367 -6.8963118 0.94963533 77 0 0 0 0
21.201038 -6.8756394 0.61349589 46 0 0 0 0
21.219721 -6.849874 0.95933414 60 0 0 0 0
21.221861 -6.8292527 0.62334484 60 0 0 0 0
21.229338 -6.8032761 0.96980387 57 0 0 0 0
21.220697 -6.7814732 0.63537252 60 0 0 0 0
21.240269 -6.7561641 0.9812777 65 0 0 0 0
21.23386 -6.7343869 0.64692146 67 0 0 0 0
21.249817 -6.7093987 0.99373955 73 0 0 0 0
21.244757 -6.6895022 0.65858018 65 0 0 0 0
21.267878 -6.6637053 1.0055645 63 0 0 0 0
21.265905 -6.6442075 0.67154306 35 0 0 0 0
21.277424 -6.61694 1.0180264 53 0 0 0 0
21.274071 -6.5977888 0.68499297 50 0 0 0 0
21.289568 -6.5713758 1.0326812 58 0 0 0 0
21.283058 -6.5516596 0.70050192 56 0 0 0 0
21.303944 -6.5258369 1.0474111 67 0 0 0 0
21.293852 -6.506525 0.71514881 63 0 0 0 0
21.312931 -6.4797077 1.0629201 72 0 0 0 0
21.303265 -6.4617376 0.7307837 60 0 0 0 0
21.325893 -6.4344325 1.0796341 66 0 0 0 0
21.32247 -6.4174285 0.74778241 44 0 0 0 0
21.337507 -6.3895912 1.0963408 58 0 0 0 0
21.327347 -6.3724236 0.76525944 48 0 0 0 0
21.341497 -6.3441305 1.1137509 50 0 0 0 0
21.345171 -6.3284574 0.78324533 51 0 0 0 0
21.35528 -6.2991443 1.1325239 51 0 0 0 0
21.355799 -6.2852178 0.8020612 48 0 0 0 0
21.366367 -6.2550187 1.1512809 44 0 0 0 0
21.369974 -6.2414894 0.8219561 46 0 0 0 0
21.381857 -6.2107773 1.1721799 44 0 0 0 0
21.381882 -6.1976528 0.84277213 54 0 0 0 0
21.395111 -6.1665101 1.1930039 39 0 0 0 0
21.386625 -6.1546259 0.86342221 47 0 0 0 0
21.406527 -6.1234765 1.2148749 65 0 0 0 0
21.402935 -6.1129847 0.88556892 44 0 0 0 0
21.413012 -6.0812778 1.2366549 49 0 0 0 0
21.411654 -6.0708113 0.90742391 47 0 0 0 0
21.420809 -6.0385661 1.259439 47 0 0 0 0
21.417645 -6.0294156 0.93025893 52 0 0 0 0
21.4384 -5.9963274 1.2835858 45 0 0 0 0
21.429846 -5.9888992 0.95437372 52 0 0 0 0
21.448828 -5.9548993 1.3075668 46 0 0 0 0
21.444744 -5.949832 0.97769326 58 0 0 0 0
21.462343 -5.9138684 1.3326856 54 0 0 0 0
21.452408 -5.9090981 1.0036503 50 0 0 0 0
21.472212 -5.8730769 1.3597136 49 0 0 0 0
21.467207 -5.8697815 1.0299579 49 0 0 0 0
21.479877 -5.8323431 1.3856705 47 0 0 0 0
21.470369 -5.8312254 1.0559499 54 0 0 0 0
21.492867 -5.7920322 1.4128405 45 0 0 0 0
21.479744 -5.7935476 1.0832217 51 0 0 0 0
21.507105 -5.7533522 1.4421951 40 0 0 0 0
21.486391 -5.7566514 1.1114742 58 0 0 0 0
21.514671 -5.7146835 1.4703298 40 0 0 0 0
21.499743 -5.7198272 1.1399506 49 0 0 0 0
21.545374 -5.6764684 1.5022677 7 0 0 0 0
21.511253 -5.6842356 1.1694741 23 0 0 0 0
25.125471 -5.5204039 1.9241531 48 0 0 0 0
25.093906 -5.533216 1.4332294 50 0 0 0 0
25.142397 -5.464901 1.9722682 42 0 0 0 0
25.11307 -5.4823599 1.479797 52 0 0 0 0
25.156693 -5.4104247 2.0183756 48 0 0 0 0
25.119251 -5.4326963 1.5260412 52 0 0 0 0
25.16238 -5.3592525 2.0664859 50 0 0 0 0
25.135225 -5.3835044 1.5736479 48 0 0 0 0
25.1752 -5.3071866 2.1157582 48 0 0 0 0
25.152941 -5.3351407 1.6223842 43 0 0 0 0
25.199554 -5.2564201 2.1675224 41 0 0 0 0
25.15896 -5.2896838 1.6719861 47 0 0 0 0
25.209612 -5.2073593 2.2179594 43 0 0 0 0
25.171223 -5.2451873 1.7218714 47 0 0 0 0
25.219606 -5.1604443 2.2695773 45 0 0 0 0
25.182106 -5.2010384 1.7727448 47 0 0 0 0
25.24074 -5.1135688 2.3225653 38 0 0 0 0
25.197853 -5.1605096 1.8240784 40 0 0 0 0
25.250637 -5.0687156 2.3763599 45 0 0 0 0
25.220699 -5.1190014 1.8775697 39 0 0 0 0
25.264938 -5.0260568 2.4314849 47 0 0 0 0
25.218935 -5.0817614 1.9296112 46 0 0 0 0
25.270761 -4.9847226 2.4854405 45 0 0 0 0
25.226074 -5.0445366 1.9829481 49 0 0 0 0
25.289894 -4.9432883 2.5428329 45 0 0 0 0
25.241661 -5.0082135 2.0376391 49 0 0 0 0
25.296509 -4.9044728 2.5990322 45 0 0 0 0
25.255836 -4.974473 2.0935044 46 0 0 0 0
25.355637 -4.8629055 2.6647446 51 0 0 0 0
25.257952 -4.9424582 2.1481159 46 0 0 0 0
25.397318 -4.8247876 2.7291718 31 0 0 0 0
25.265821 -4.9122066 2.204066 41 0 0 0 0
25.423357 -4.7888079 2.792264 33 0 0 0 0
25.295906 -4.8818693 2.2647481 44 0 0 0 0
25.434708 -4.7555881 2.8520956 33 0 0 0 0
25.346497 -4.8506994 2.3280363 46 0 0 0 0
25.441099 -4.7254348 2.9120216 30 0 0 0 0
25.386312 -4.8229761 2.3912609 35 0 0 0 0
25.449659 -4.6974511 2.9732029 27 0 0 0 0
25.401615 -4.7997704 2.450048 33 0 0 0 0
24.262142 -4.7994828 2.7894204 21 0 0 0 0
25.407948 -4.7786956 2.5087209 34 0 0 0 0
24.043926 -4.8019738 2.797569 25 0 0 0 0
25.409781 -4.7598004 2.5674286 34 0 0 0 0
23.822163 -4.8072724 2.803829 24 0 0 0 0
25.424036 -4.7426581 2.6286948 34 0 0 0 0
23.643583 -4.8107681 2.8173685 25 0 0 0 0
25.428011 -4.7281604 2.6888428 34 0 0 0 0
23.441507 -4.8195763 2.8225548 24 0 0 0 0
25.441811 -4.7142153 2.7493565 34 0 0 0 0
23.256357 -4.8279624 2.830265 23 0 0 0 0
25.43997 -4.7047224 2.8077245 33 0 0 0 0
23.087246 -4.8377814 2.8396213 25 0 0 0 0
25.447893 -4.6956162 2.8684502 34 0 0 0 0
22.916395 -4.8490887 2.8470376 25 0 0 0 0
25.456705 -4.6892767 2.9284313 34 0 0 0 0
22.73848 -4.8637748 2.8504896 27 0 0 0 0
24.934605 -4.7411146 2.8816078 20 0 0 0 0
22.592606 -4.876616 2.8598511 27 0 0 0 0
24.154541 -4.8233614 2.7777216 26 0 0 0 0
22.479168 -4.886559 2.8770549 18 0 0 0 0
23.978018 -4.8425746 2.7916348 25 0 0 0 0
22.266291 -4.910059 2.8660491 17 0 0 0 0
23.794397 -4.8650827 2.8025806 25 0 0 0 0
22.261305 -4.9113374 2.9081481 30 0 0 0 0
23.607723 -4.8895941 2.8105819 25 0 0 0 0
22.260262 -4.9133844 2.9524474 29 0 0 0 0
23.433569 -4.9137988 2.8189657 25 0 0 0 0
22.272564 -4.9154105 2.999187 28 0 0 0 0
23.264347 -4.9394813 2.8266294 25 0 0 0 0
22.262653 -4.9221501 3.0395727 28 0 0 0 0
23.101402 -4.9662094 2.8335807 28 0 0 0 0
22.258957 -4.9297657 3.0812378 28 0 0 0 0
22.948746 -4.9926057 2.8408394 26 0 0 0 0
22.256575 -4.9391789 3.123095 28 0 0 0 0
22.793888 -5.0213766 2.8462169 27 0 0 0 0
22.251534 -4.9495373 3.1639407 27 0 0 0 0
22.660885 -5.048883 2.854208 28 0 0 0 0
22.260233 -4.961132 3.208348 28 0 0 0 0
22.52614 -5.0778756 2.8602588 29 0 0 0 0
22.254311 -4.9756579 3.247504 27 0 0 0 0
22.429617 -5.1034999 2.8753042 19 0 0 0 0
22.252365 -4.991035 3.2878642 27 0 0 0 0
22.266121 -5.1375589 2.8697984 16 0 0 0 0
22.249569 -5.0083508 3.3263502 26 0 0 0 0
22.195005 -5.1637392 2.8877249 29 0 0 0 0
22.243193 -5.0283866 3.3639421 26 0 0 0 0
22.191851 -5.1845031 2.9224703 32 0 0 0 0
22.240398 -5.0480146 3.4016168 26 0 0 0 0
22.180679 -5.2080207 2.9551764 32 0 0 0 0
22.237642 -5.0700374 3.4374838 26 0 0 0 0
22.180685 -5.2316575 2.9882557 32 0 0 0 0
22.238403 -5.0937967 3.4746141 26 0 0 0 0
22.172245 -5.2567077 3.0191705 32 0 0 0 0
22.232958 -5.1189933 3.509654 26 0 0 0 0
22.171762 -5.2834597 3.0524933 32 0 0 0 0
22.228893 -5.146153 3.5428944 26 0 0 0 0
22.163755 -5.3121624 3.0827215 31 0 0 0 0
22.226572 -5.17414 3.5772643 25 0 0 0 0
22.158016 -5.3409729 3.1120291 31 0 0 0 0
22.216301 -5.2050476 3.6076028 26 0 0 0 0
22.155373 -5.3724899 3.1416621 31 0 0 0 0
22.212736 -5.2360268 3.6381655 25 0 0 0 0
22.141226 -5.405107 3.1669972 31 0 0 0 0
22.202503 -5.2693291 3.6666963 25 0 0 0 0
22.135559 -5.4387064 3.1926892 32 0 0 0 0
22.201178 -5.3026433 3.696522 25 0 0 0 0
22.132986 -5.4727011 3.2195191 32 0 0 0 0
22.19762 -5.3382444 3.7254615 25 0 0 0 0
22.11536 -5.5082879 3.240972 31 0 0 0 0
22.179966 -5.37606 3.7470992 25 0 0 0 0
22.110163 -5.5456233 3.2649822 31 0 0 0 0
22.175558 -5.4136014 3.7741642 25 0 0 0 0
22.103651 -5.5834732 3.2879887 31 0 0 0 0
22.172565 -5.4531879 3.798434 27 0 0 0 0
22.098061 -5.6218615 3.310066 31 0 0 0 0
22.158039 -5.4937935 3.819401 28 0 0 0 0
21.61698 -5.6751161 3.1743572 40 0 0 0 0
22.149792 -5.535439 3.8396549 27 0 0 0 0
21.594694 -5.7145247 3.1869416 40 0 0 0 0
22.137539 -5.5784631 3.8588896 27 0 0 0 0
21.590124 -5.7537065 3.2051024 39 0 0 0 0
22.12933 -5.6225033 3.8773363 27 0 0 0 0
21.576319 -5.7941003 3.2180445 40 0 0 0 0
21.62858 -5.6808295 3.6992457 39 0 0 0 0
21.572279 -5.8348727 3.2333426 40 0 0 0 0
21.620531 -5.72298 3.7135246 42 0 0 0 0
21.560253 -5.876173 3.2464175 41 0 0 0 0
21.60762 -5.7661362 3.7257211 42 0 0 0 0
21.554506 -5.9185133 3.2587788 40 0 0 0 0
21.595173 -5.8107181 3.7370474 43 0 0 0 0
21.54212 -5.9609494 3.2689242 40 0 0 0 0
21.592487 -5.8556814 3.7507303 43 0 0 0 0
21.535093 -6.0038877 3.2792854 40 0 0 0 0
21.575243 -5.9014359 3.757982 39 0 0 0 0
21.517056 -6.0471249 3.2842937 40 0 0 0 0
21.565559 -5.9476314 3.76652 43 0 0 0 0
21.515818 -6.0919061 3.2949965 41 0 0 0 0
21.555943 -5.9939938 3.7730663 42 0 0 0 0
21.503571 -6.1369867 3.3003464 39 0 0 0 0
21.545868 -6.0412426 3.779671 42 0 0 0 0
21.492243 -6.1826053 3.3047667 43 0 0 0 0
21.528364 -6.0883827 3.7810059 43 0 0 0 0
21.476084 -6.2270026 3.3069205 44 0 0 0 0
21.526281 -6.1374145 3.7890224 42 0 0 0 0
21.471893 -6.2740321 3.3116899 43 0 0 0 0
21.508419 -6.1856909 3.7874274 44 0 0 0 0
21.455341 -6.3194828 3.3119109 43 0 0 0 0
21.499796 -6.2350693 3.7902405 43 0 0 0 0
21.444149 -6.3654346 3.3123469 42 0 0 0 0
21.483315 -6.2829971 3.7876575 43 0 0 0 0
21.432531 -6.4123559 3.3118458 40 0 0 0 0
21.475679 -6.3330793 3.787549 44 0 0 0 0
21.423183 -6.4593835 3.3104231 40 0 0 0 0
21.46104 -6.3820834 3.7831073 41 0 0 0 0
21.409033 -6.5052729 3.305738 40 0 0 0 0
21.448606 -6.4310279 3.7797358 41 0 0 0 0
21.39883 -6.551929 3.3032527 40 0 0 0 0
21.440216 -6.480988 3.7755766 42 0 0 0 0
21.382086 -6.5989323 3.2955637 39 0 0 0 0
21.428768 -6.5306358 3.7692835 42 0 0 0 0
21.372839 -6.6462097 3.291153 38 0 0 0 0
21.41601 -6.5808001 3.761987 41 0 0 0 0
21.364971 -6.6931381 3.2857537 39 0 0 0 0
21.404629 -6.6306148 3.7537022 37 0 0 0 0
21.350531 -6.7403302 3.2761471 39 0 0 0 0
21.390192 -6.6801181 3.743284 40 0 0 0 0
21.337437 -6.7870908 3.2665484 40 0 0 0 0
21.37888 -6.7300992 3.733007 41 0 0 0 0
21.330099 -6.8356104 3.2582867 40 0 0 0 0
21.372004 -6.7800431 3.7238748 41 0 0 0 0
21.314407 -6.8811731 3.2464955 41 0 0 0 0
21.350632 -6.8286357 3.7071314 42 0 0 0 0
21.307596 -6.9289722 3.2361827 42 0 0 0 0
21.344711 -6.8792 3.6960738 43 0 0 0 0
21.294636 -6.9760652 3.2225995 41 0 0 0 0
21.328699 -6.9282932 3.6795456 43 0 0 0 0
21.275955 -7.0214834 3.2066832 42 0 0 0 0
21.316236 -6.9768944 3.6640961 42 0 0 0 0
21.2626 -7.0673189 3.1919782 43 0 0 0 0
21.297657 -7.0248728 3.6443801 42 0 0 0 0
21.253258 -7.1140866 3.1774812 42 0 0 0 0
21.290096 -7.074861 3.6292045 41 0 0 0 0
21.368504 -7.1841745 3.2041078 18 0 0 0 0
21.274643 -7.1233177 3.6096296 42 0 0 0 0
21.42325 -7.2435508 3.2098072 32 0 0 0 0
21.26366 -7.1718192 3.5902033 43 0 0 0 0
21.470104 -7.301394 3.2111065 33 0 0 0 0
21.250967 -7.2195778 3.5686517 43 0 0 0 0
21.500652 -7.3568945 3.2056577 34 0 0 0 0
21.23913 -7.2677078 3.5481625 44 0 0 0 0
21.497202 -7.4057488 3.1885123 36 0 0 0 0
21.220749 -7.3138747 3.5232818 55 0 0 0 0
21.485859 -7.4530721 3.1669676 41 0 0 0 0
21.214729 -7.361618 3.5029492 42 0 0 0 0
21.47323 -7.4986825 3.1442344 44 0 0 0 0
21.201246 -7.4068604 3.4791539 43 0 0 0 0
21.461916 -7.5437775 3.1225049 46 0 0 0 0
21.184704 -7.4517922 3.4532259 44 0 0 0 0
21.452875 -7.5912895 3.0990422 59 0 0 0 0
21.177898 -7.49933 3.4298382 43 0 0 0 0
21.439886 -7.6357245 3.0741916 52 0 0 0 0
21.166716 -7.5447612 3.4041257 42 0 0 0 0
21.434853 -7.6818571 3.051748 45 0 0 0 0
21.152935 -7.588995 3.3762205 43 0 0 0 0
21.413084 -7.7243075 3.0224309 45 0 0 0 0
21.136953 -7.6332893 3.347245 43 0 0 0 0
21.397528 -7.7676291 2.9943922 47 0 0 0 0
21.123665 -7.6767197 3.3182855 46 0 0 0 0
21.393055 -7.8131237 2.9689014 56 0 0 0 0
21.111719 -7.7197218 3.2893479 51 0 0 0 0
21.376642 -7.8560772 2.9398153 63 0 0 0 0
21.103758 -7.7635674 3.261601 61 0 0 0 0
21.369995 -7.899404 2.9130712 59 0 0 0 0
21.094975 -7.8071246 3.2317951 43 0 0 0 0
21.354568 -7.9407458 2.8818612 68 0 0 0 0
21.161148 -7.8718052 3.2292695 35 0 0 0 0
21.340919 -7.9829969 2.8507845 59 0 0 0 0
21.246367 -7.9426632 3.2308869 35 0 0 0 0
21.325521 -8.0244293 2.8185799 48 0 0 0 0
21.320137 -8.0101786 3.2278399 35 0 0 0 0
21.321671 -8.0671406 2.7888629 49 0 0 0 0
21.337471 -8.0611534 3.2045174 39 0 0 0 0
21.313839 -8.109004 2.7579424 53 0 0 0 0
21.33326 -8.1049995 3.1718712 52 0 0 0 0
21.297655 -8.147913 2.7234931 53 0 0 0 0
21.318491 -8.1459541 3.1346259 69 0 0 0 0
21.281038 -8.1854811 2.6889184 58 0 0 0 0
21.305037 -8.1863928 3.0983841 61 0 0 0 0
21.277714 -8.2274714 2.65715 66 0 0 0 0
21.300461 -8.229064 3.0636201 51 0 0 0 0
21.262941 -8.2661142 2.6207161 74 0 0 0 0
21.285755 -8.2678728 3.0251942 57 0 0 0 0
21.254808 -8.304657 2.5864971 59 0 0 0 0
21.275028 -8.3075294 2.9879715 60 0 0 0 0
21.244476 -8.3432617 2.5512078 56 0 0 0 0
21.264793 -8.3463831 2.9496942 57 0 0 0 0
21.234634 -8.3810616 2.5148633 57 0 0 0 0
21.251926 -8.383956 2.9102206 63 0 0 0 0
21.219494 -8.4162188 2.4771233 59 0 0 0 0
21.243895 -8.4227486 2.8730135 64 0 0 0 0
21.210112 -8.4531326 2.4407198 57 0 0 0 0
21.223589 -8.455595 2.8298934 86 0 0 0 0
21.197243 -8.4883947 2.4020581 60 0 0 0 0
21.219173 -8.4940586 2.7917719 71 0 0 0 0
21.194996 -8.5267153 2.3660028 79 0 0 0 0
21.213902 -8.5321522 2.7525876 67 0 0 0 0
21.188374 -8.5629292 2.3276227 77 0 0 0 0
21.195833 -8.5650206 2.709542 85 0 0 0 0
21.171124 -8.5937757 2.2874472 66 0 0 0 0
21.186644 -8.6001215 2.6679738 70 0 0 0 0
21.169401 -8.6313744 2.2493408 70 0 0 0 0
21.178768 -8.6347065 2.6274092 71 0 0 0 0
21.151787 -8.661046 2.2070477 66 0 0 0 0
21.167406 -8.6676407 2.5845861 57 0 0 0 0
21.145193 -8.6950321 2.1684828 32 0 0 0 0
21.163576 -8.7032385 2.5432329 56 0 0 0 0
21.136459 -8.7269354 2.1276672 61 0 0 0 0
21.15004 -8.7340059 2.499155 98 0 0 0 0
21.130392 -8.7602005 2.0870512 84 0 0 0 0
21.138739 -8.7647953 2.4551513 76 0 0 0 0
21.11817 -8.790452 2.043977 66 0 0 0 0
21.129673 -8.7956057 2.411222 66 0 0 0 0
21.110815 -8.8220053 2.0021727 61 0 0 0 0
21.118374 -8.826395 2.3672183 72 0 0 0 0
21.100796 -8.8521957 1.9601687 63 0 0 0 0
21.115097 -8.8590441 2.3236291 71 0 0 0 0
21.08597 -8.8789406 1.9157144 63 0 0 0 0
21.106092 -8.8877087 2.2785192 71 0 0 0 0
21.088419 -8.9132614 1.8744577 69 0 0 0 0
21.098866 -8.9172831 2.2335422 95 0 0 0 0
21.078951 -8.9405022 1.8302182 79 0 0 0 0
21.089863 -8.9459486 2.1884322 67 0 0 0 0
21.069485 -8.9677439 1.7859787 70 0 0 0 0
21.076052 -8.9711685 2.1408718 99 0 0 0 0
21.068014 -8.999073 1.7423382 91 0 0 0 0
21.072407 -9.0003309 2.0959764 76 0 0 0 0
21.049728 -9.0219393 1.695441 68 0 0 0 0
21.066162 -9.0282965 2.0488894 74 0 0 0 0
21.048288 -9.0510397 1.651616 68 0 0 0 0
21.057678 -9.0539303 2.0025399 74 0 0 0 0
21.040228 -9.0757027 1.6062034 90 0 0 0 0
21.042578 -9.0751266 1.954603 78 0 0 0 0
21.026411 -9.0986156 1.5594555 65 0 0 0 0
21.039024 -9.1022301 1.9075319 90 0 0 0 0
21.025494 -9.1269941 1.5135792 68 0 0 0 0
21.033266 -9.1270809 1.8602015 91 0 0 0 0
21.00993 -9.1467676 1.4665129 73 0 0 0 0
21.02754 -9.1520147 1.8118749 70 0 0 0 0
21.005947 -9.1725264 1.4193155 79 0 0 0 0
21.016943 -9.173337 1.7630901 96 0 0 0 0
20.996174 -9.1941366 1.3725895 52 0 0 0 0
21.012989 -9.196867 1.7157083 65 0 0 0 0
21.000216 -9.2217531 1.3258063 101 0 0 0 0
21.001963 -9.2168484 1.666798 99 0 0 0 0
20.98649 -9.2402897 1.2776924 82 0 0 0 0
20.992311 -9.2364798 1.6168994 79 0 0 0 0
20.983028 -9.2630157 1.2292556 81 0 0 0 0
20.988852 -9.2592058 1.5684625 73 0 0 0 0
20.979534 -9.2856588 1.1818147 106 0 0 0 0
20.981895 -9.2779713 1.5185789 73 0 0 0 0
20.975641 -9.3070431 1.1332521 127 0 0 0 0
20.971815 -9.2962608 1.4685547 111 0 0 0 0
20.959309 -9.322073 1.0837585 72 0 0 0 0
20.966206 -9.3145933 1.4186789 65 0 0 0 0
20.949688 -9.3394756 1.0336754 42 0 0 0 0
20.958818 -9.3320169 1.3686699 80 0 0 0 0
20.951185 -9.3614388 0.98433149 13 0 0 0 0
20.953243 -9.3504314 1.3177979 100 0 0 0 0
20.911747 -9.3623562 0.93392026 6 0 0 0 0
20.950325 -9.367897 1.2679369 87 0 0 0 0
20.929298 -9.3903446 0.88459307 36 0 0 0 0
20.945633 -9.3844547 1.2179431 41 0 0 0 0
20.926846 -9.4092331 0.83386159 67 0 0 0 0
20.919214 -9.3888607 1.1652317 26 0 0 0 0
20.923071 -9.4263315 0.78293902 99 0 0 0 0
20.930115 -9.4123335 1.1153141 107 0 0 0 0
20.917978 -9.4416304 0.73182362 39 0 0 0 0
20.925024 -9.4276333 1.0641989 93 0 0 0 0
20.906666 -9.4537525 0.68024272 41 0 0 0 0
20.924433 -9.4430561 1.0122354 72 0 0 0 0
20.907396 -9.4709702 0.62847137 67 0 0 0 0
20.9198 -9.457468 0.96106106 83 0 0 0 0
20.895653 -9.4817514 0.576765 65 0 0 0 0
20.910782 -9.4674664 0.90837383 87 0 0 0 0
20.894175 -9.4967203 0.52473515 51 0 0 0 0
20.91065 -9.4820013 0.85635149 107 0 0 0 0
20.196791 -9.1365442 0.49730533 150 0 0 0 0
20.909199 -9.4947424 0.80413723 69 0 0 0 0
20.322702 -9.2172441 0.44482422 150 0 0 0 0
20.90686 -9.5070295 0.75185645 53 0 0 0 0
20.29571 -9.2153654 0.39759687 150 0 0 0 0
20.900103 -9.5148191 0.69905889 55 0 0 0 0
20.14691 -9.1467953 0.35795137 150 0 0 0 0
20.891537 -9.5216188 0.64712441 79 0 0 0 0
20.066757 -9.1137495 0.31645322 86 0 0 0 0
20.882971 -9.5284176 0.59519005 59 0 0 0 0
19.913376 -9.0402756 0.28127262 99 0 0 0 0
20.882925 -9.5385799 0.54180282 51 0 0 0 0
19.874718 -9.0276337 0.23779409 85 0 0 0 0
20.865499 -9.5386133 0.48901939 62 0 0 0 0
19.956619 -9.0823593 0.1837368 150 0 0 0 0
20.256357 -9.2150068 0.46147069 151 0 0 0 0
19.772781 -8.9882641 0.1548937 151 0 0 0 0
20.744999 -9.4896746 0.38865581 150 0 0 0 0
19.551722 -8.8733196 0.13415755 151 0 0 0 0
20.031578 -9.105588 0.37780797 109 0 0 0 0
19.147795 -8.6569653 0.1362239 150 0 0 0 0
19.966646 -9.0759716 0.33508056 66 0 0 0 0
19.189827 -8.6849422 0.09070196 154 0 0 0 0
19.917742 -9.0546064 0.29255369 68 0 0 0 0
19.090597 -8.6344624 0.062200204 154 0 0 0 0
19.851883 -9.0221453 0.25156817 97 0 0 0 0
19.107153 -8.6479816 0.019672293 152 0 0 0 0
19.987419 -9.1002893 0.19315976 141 0 0 0 0
18.794415 -8.4772873 0.025475342 70 0 0 0 0
19.789278 -8.9941626 0.1668721 151 0 0 0 0
18.761698 -8.462554 -0.0079423329 66 0 0 0 0
19.844009 -9.0268316 0.11512151 151 0 0 0 0
18.7612 -8.4647331 -0.045939989 79 0 0 0 0
19.155416 -8.6493006 0.14880368 151 0 0 0 0
18.250648 -8.1812658 0.0043331268 150 0 0 0 0
19.408514 -8.7900314 0.077312186 150 0 0 0 0
18.161345 -8.1318521 -0.013716344 83 0 0 0 0
19.29505 -8.7276773 0.049371939 155 0 0 0 0
18.162947 -8.1337261 -0.047654152 80 0 0 0 0
19.160484 -8.6529732 0.026751218 154 0 0 0 0
18.145294 -8.124321 -0.07813248 74 0 0 0 0
18.898346 -8.5078106 0.024268797 107 0 0 0 0
18.139715 -8.1200905 -0.10979809 68 0 0 0 0
18.681721 -8.3862829 0.019199699 62 0 0 0 0
18.0956 -8.0955286 -0.13435967 83 0 0 0 0
18.759115 -8.4271011 -0.030135116 150 0 0 0 0
18.07254 -8.0809269 -0.16243233 70 0 0 0 0
18.774729 -8.4331512 -0.06929794 118 0 0 0 0
18.030161 -8.0548801 -0.18505287 68 0 0 0 0
18.397982 -8.2234459 -0.039684266 150 0 0 0 0
18.03982 -8.058692 -0.21957295 83 0 0 0 0
18.273283 -8.1519537 -0.050671883 94 0 0 0 0
17.964687 -8.0141544 -0.23474883 69 0 0 0 0
18.164644 -8.0887966 -0.062454883 102 0 0 0 0
17.958179 -8.0070791 -0.26467228 63 0 0 0 0
18.09721 -8.047328 -0.081143014 95 0 0 0 0
17.963354 -8.0062294 -0.29771653 56 0 0 0 0
18.057064 -8.0213032 -0.10368925 92 0 0 0 0
17.96945 -8.0059166 -0.33169049 59 0 0 0 0
18.047424 -8.0114422 -0.13294147 81 0 0 0 0
17.957111 -7.9946141 -0.36014563 63 0 0 0 0
18.029259 -7.9959121 -0.15992849 79 0 0 0 0
17.968172 -7.9958463 -0.3958385 100 0 0 0 0
18.046078 -7.9988937 -0.19428585 62 0 0 0 0
17.998547 -8.0062094 -0.43617201 90 0 0 0 0
18.000988 -7.9690981 -0.21529666 75 0 0 0 0
18.197229 -8.1090555 -0.5296427 151 0 0 0 0
17.966166 -7.9434867 -0.23663174 93 0 0 0 0
18.256533 -8.1351662 -0.5827927 150 0 0 0 0
18.004995 -7.9570422 -0.2764267 78 0 0 0 0
18.0534 -8.0170727 -0.55099052 67 0 0 0 0
17.982313 -7.9367695 -0.30094144 89 0 0 0 0
18.032982 -7.9969006 -0.57642758 151 0 0 0 0
17.978918 -7.9278555 -0.32991266 63 0 0 0 0
17.98328 -7.9621158 -0.59197766 61 0 0 0 0
18.060034 -7.9617319 -0.38171238 130 0 0 0 0
17.962372 -7.94275 -0.61635941 73 0 0 0 0
18.073746 -7.9596996 -0.41558284 84 0 0 0 0
17.967594 -7.9374428 -0.64977223 82 0 0 0 0
18.071297 -7.9490924 -0.44566798 126 0 0 0 0
18.007957 -7.9487462 -0.69472486 140 0 0 0 0
18.103468 -7.9558182 -0.4852421 152 0 0 0 0
17.914446 -7.8890419 -0.69167304 76 0 0 0 0
19.471508 -8.655549 -0.94011182 150 0 0 0 0
17.901623 -7.8716974 -0.71763265 61 0 0 0 0
18.130018 -7.9467597 -0.55242169 105 0 0 0 0
17.929838 -7.8753524 -0.75859326 61 0 0 0 0
18.0938 -7.9168801 -0.57114369 118 0 0 0 0
17.91563 -7.8560462 -0.78275293 65 0 0 0 0
18.020586 -7.8670082 -0.57565427 62 0 0 0 0
17.928078 -7.8500738 -0.81799513 67 0 0 0 0
17.951817 -7.8194056 -0.57983238 54 0 0 0 0
17.969385 -7.8596821 -0.86406195 55 0 0 0 0
17.984436 -7.8229313 -0.61865354 66 0 0 0 0
17.987719 -7.8557892 -0.9019531 24 0 0 0 0
17.94492 -7.7898579 -0.63172287 150 0 0 0 0
17.861916 -7.7769856 -0.87843853 27 0 0 0 0
18.02492 -7.8155742 -0.6882531 150 0 0 0 0
17.787519 -7.7259231 -0.87404919 34 0 0 0 0
17.99037 -7.7840452 -0.70304143 111 0 0 0 0
17.723486 -7.6792922 -0.87297267 33 0 0 0 0
17.972467 -7.7602844 -0.72267026 78 0 0 0 0
17.666658 -7.6365366 -0.87435293 41 0 0 0 0
17.951868 -7.7350817 -0.74150181 61 0 0 0 0
17.593971 -7.5862207 -0.86783767 32 0 0 0 0
17.970518 -7.7276583 -0.77465594 77 0 0 0 0
17.529806 -7.5392637 -0.8627758 31 0 0 0 0
17.993647 -7.7225823 -0.80847436 87 0 0 0 0
17.478275 -7.4991493 -0.86276084 29 0 0 0 0
18.077316 -7.7458129 -0.86710107 53 0 0 0 0
18.061214 -7.7207298 -0.8867811 55 0 0 0 0
18.028334 -7.6875505 -0.89763588 55 0 0 0 0
17.958368 -7.6364493 -0.89210153 42 0 0 0 0
17.866199 -7.5765958 -0.87596357 32 0 0 0 0
17.818281 -7.5361476 -0.87686354 33 0 0 0 0
17.771713 -7.4975772 -0.8785674 40 0 0 0 0
17.725971 -7.4592962 -0.87821263 28 0 0 0 0
17.70013 -7.4295831 -0.88654298 28 0 0 0 0
17.630796 -7.3805938 -0.87378329 38 0 0 0 0
17.589952 -7.3436942 -0.87315494 42 0 0 0 0
17.540033 -7.3040795 -0.86802518 40 0 0 0 0
17.784374 -6.3092594 -0.89090925 25 0 0 0 0
17.829172 -6.3051763 -0.89081484 25 0 0 0 0
17.887051 -6.3024135 -0.89420468 21 0 0 0 0
17.949009 -6.3007345 -0.89938134 23 0 0 0 0
18.02947 -6.3010244 -0.90982217 13 0 0 0 0
18.091362 -6.2991762 -0.91300732 20 0 0 0 0
18.128223 -6.2959862 -0.90305573 26 0 0 0 0
18.205441 -6.2977819 -0.91046476 22 0 0 0 0
18.272606 -6.2984786 -0.91126156 28 0 0 0 0
18.350161 -6.3013635 -0.91555786 24 0 0 0 0
18.432219 -6.3043623 -0.92070383 22 0 0 0 0
18.531401 -6.3096809 -0.93012536 22 0 0 0 0
17.842766 -6.2012329 -0.89204377 25 0 0 0 0
18.598848 -6.3136082 -0.92663002 19 0 0 0 0
17.911749 -6.2052283 -0.89451617 23 0 0 0 0
18.695213 -6.3194633 -0.93208259 22 0 0 0 0
17.983435 -6.2106619 -0.89778626 22 0 0 0 0
18.790667 -6.3270926 -0.93741757 21 0 0 0 0
18.065964 -6.2173944 -0.90461522 20 0 0 0 0
18.921318 -6.3376679 -0.95241767 17 0 0 0 0
18.156155 -6.224792 -0.91315037 19 0 0 0 0
19.054605 -6.349514 -0.96622384 17 0 0 0 0
18.235378 -6.2328668 -0.91495514 18 0 0 0 0
19.153032 -6.3595014 -0.96725255 19 0 0 0 0
18.320948 -6.242125 -0.91946954 21 0 0 0 0
19.261383 -6.3702521 -0.97091019 19 0 0 0 0
18.401951 -6.2511001 -0.92114276 15 0 0 0 0
19.356993 -6.3807759 -0.96796989 26 0 0 0 0
18.520916 -6.2646246 -0.93527102 15 0 0 0 0
19.072557 -6.355917 -0.84367192 141 0 0 0 0
18.595001 -6.2752795 -0.93100488 18 0 0 0 0
18.957609 -6.3485541 -0.7747066 62 0 0 0 0
18.696653 -6.2882972 -0.93567932 17 0 0 0 0
18.986376 -6.3549981 -0.75215596 34 0 0 0 0
18.805058 -6.303751 -0.94195604 18 0 0 0 0
19.08601 -6.3687506 -0.74982113 72 0 0 0 0
18.926512 -6.3204346 -0.95072234 17 0 0 0 0
19.125542 -6.3785515 -0.72866768 149 0 0 0 0
19.08005 -6.3419027 -0.97010612 17 0 0 0 0
19.058981 -6.3780122 -0.67665118 47 0 0 0 0
19.193695 -6.3598123 -0.97299927 18 0 0 0 0
19.108871 -6.3899174 -0.65800148 62 0 0 0 0
19.29644 -6.3785653 -0.97115421 19 0 0 0 0
19.110939 -6.3966742 -0.6262601 37 0 0 0 0
19.249102 -6.3845696 -0.91998416 75 0 0 0 0
19.25688 -6.4201279 -0.63267368 53 0 0 0 0
18.968212 -6.3660917 -0.7960434 63 0 0 0 0
19.254393 -6.4289136 -0.59890324 54 0 0 0 0
18.997774 -6.3795834 -0.77189344 54 0 0 0 0
19.330793 -6.4468474 -0.58492398 50 0 0 0 0
18.89502 -6.3799486 -0.7079165 72 0 0 0 0
19.288609 -6.4525762 -0.54063851 150 0 0 0 0
18.830683 -6.3839741 -0.65645355 55 0 0 0 0
19.910215 -6.5336528 -0.65546 152 0 0 0 0
18.917147 -6.4053159 -0.64989918 38 0 0 0 0
19.928329 -6.5486193 -0.62352651 152 0 0 0 0
19.015285 -6.4282432 -0.64484525 54 0 0 0 0
19.952724 -6.5646071 -0.59230971 152 0 0 0 0
18.961805 -6.4358792 -0.59775329 54 0 0 0 0
19.988367 -6.5831475 -0.5635311 152 0 0 0 0
19.131155 -6.4695058 -0.6106025 44 0 0 0 0
19.561161 -6.5467763 -0.4357456 153 0 0 0 0
19.169258 -6.4886494 -0.58872163 65 0 0 0 0
19.38217 -6.5390925 -0.36485189 42 0 0 0 0
19.205496 -6.5089521 -0.56479722 51 0 0 0 0
19.471899 -6.5660262 -0.34969893 150 0 0 0 0
19.144827 -6.5173464 -0.51687026 60 0 0 0 0
19.439692 -6.5772257 -0.31066269 150 0 0 0 0
19.171173 -6.5369678 -0.49131313 99 0 0 0 0
19.383654 -6.5860629 -0.26756987 41 0 0 0 0
19.310123 -6.5733075 -0.49186665 56 0 0 0 0
19.343399 -6.5976534 -0.22876032 74 0 0 0 0
19.351765 -6.5964832 -0.46953839 14 0 0 0 0
19.372385 -6.6185451 -0.20200957 58 0 0 0 0
19.578875 -6.6476464 -0.48710808 153 0 0 0 0
19.264269 -6.6204844 -0.1521298 42 0 0 0 0
19.416037 -6.6439042 -0.41837868 22 0 0 0 0
19.331469 -6.6490717 -0.1325464 47 0 0 0 0
19.364914 -6.6564279 -0.37582615 150 0 0 0 0
19.351061 -6.6707878 -0.10602999 40 0 0 0 0
19.21841 -6.6548028 -0.31442642 68 0 0 0 0
19.358917 -6.6907554 -0.076020837 54 0 0 0 0
19.295126 -6.6874318 -0.29922178 98 0 0 0 0
19.370396 -6.7126956 -0.047739401 45 0 0 0 0
19.209444 -6.6943216 -0.25222519 35 0 0 0 0
19.418705 -6.7403712 -0.024824649 54 0 0 0 0
19.146748 -6.7055154 -0.21115929 51 0 0 0 0
19.495239 -6.7748113 -0.0044566598 28 0 0 0 0
19.233335 -6.7410502 -0.19740422 74 0 0 0 0
19.512091 -6.7995434 0.023224564 49 0 0 0 0
19.180141 -6.7539778 -0.15990467 31 0 0 0 0
19.491259 -6.8181715 0.055210367 56 0 0 0 0
19.179962 -6.7766476 -0.13093457 47 0 0 0 0
19.596945 -6.8599072 0.072100937 62 0 0 0 0
19.180704 -6.7998524 -0.10289444 42 0 0 0 0
19.78512 -6.91746 0.080909997 152 0 0 0 0
19.16217 -6.8186655 -0.072826922 38 0 0 0 0
20.65176 -7.1059132 0.017994471 150 0 0 0 0
19.233891 -6.8565202 -0.05634756 45 0 0 0 0
20.595287 -7.1247964 0.058891978 103 0 0 0 0
19.271475 -6.8877673 -0.03448702 38 0 0 0 0
20.804249 -7.1960425 0.072514094 150 0 0 0 0
19.198193 -6.8983321 0.0021699187 51 0 0 0 0
21.324188 -7.3317051 0.05931684 92 0 0 0 0
19.256866 -6.9349556 0.021138618 51 0 0 0 0
21.2484 -7.3506489 0.1026083 150 0 0 0 0
19.29851 -6.9695134 0.041395687 47 0 0 0 0
21.358564 -7.4085789 0.13001636 78 0 0 0 0
19.508345 -7.0409508 0.042010821 40 0 0 0 0
21.346859 -7.4416275 0.16750324 62 0 0 0 0
19.401913 -7.0456133 0.081127286 42 0 0 0 0
21.343681 -7.4780188 0.20353353 80 0 0 0 0
19.479826 -7.0910773 0.098434672 51 0 0 0 0
21.3284 -7.5114894 0.24094003 62 0 0 0 0
19.556362 -7.1368933 0.11673063 7 0 0 0 0
21.328815 -7.5497708 0.27623829 59 0 0 0 0
21.315859 -7.5823684 -0.044753425 55 0 0 0 0
21.318079 -7.5857482 0.31098667 65 0 0 0 0
21.307793 -7.6197004 -0.0098070195 55 0 0 0 0
21.316294 -7.6240973 0.34521544 63 0 0 0 0
21.301538 -7.6580195 0.024275502 68 0 0 0 0
21.30912 -7.6618824 0.38022789 84 0 0 0 0
21.297064 -7.6972418 0.05848984 32 0 0 0 0
21.306913 -7.7012029 0.41351938 57 0 0 0 0
21.288122 -7.7364345 0.09255784 56 0 0 0 0
21.29668 -7.7386861 0.44640017 56 0 0 0 0
21.274309 -7.7743397 0.12535839 59 0 0 0 0
21.287338 -7.7766223 0.47934708 56 0 0 0 0
21.271715 -7.8147135 0.15671635 45 0 0 0 0
21.282509 -7.8169813 0.51063186 56 0 0 0 0
21.26462 -7.8549752 0.18892401 53 0 0 0 0
21.273636 -7.8563404 0.54270738 77 0 0 0 0
21.253576 -7.894484 0.21893425 46 0 0 0 0
21.267063 -7.8958793 0.57286382 53 0 0 0 0
21.240721 -7.9330072 0.2498084 31 0 0 0 0
21.255989 -7.9353065 0.60387003 82 0 0 0 0
21.237284 -7.9753242 0.2792916 40 0 0 0 0
21.246271 -7.9766078 0.63407093 52 0 0 0 0
21.233395 -8.0185289 0.30883375 43 0 0 0 0
21.246397 -8.0207319 0.66381824 64 0 0 0 0
21.220587 -8.0594473 0.33789936 52 0 0 0 0
21.236746 -8.0621986 0.69202685 61 0 0 0 0
21.206032 -8.0995445 0.36583674 50 0 0 0 0
21.221304 -8.1018448 0.71989822 68 0 0 0 0
21.202209 -8.1429157 0.39338639 75 0 0 0 0
21.216105 -8.1455708 0.74843675 85 0 0 0 0
21.198366 -8.1885147 0.42111975 51 0 0 0 0
21.207783 -8.1888304 0.7768361 70 0 0 0 0
21.185173 -8.2304869 0.44825184 59 0 0 0 0
21.199526 -8.232255 0.80324316 72 0 0 0 0
21.173792 -8.2734461 0.47451976 37 0 0 0 0
21.189924 -8.2761164 0.82964301 78 0 0 0 0
21.163328 -8.316946 0.49985901 62 0 0 0 0
21.176762 -8.3181801 0.85578036 71 0 0 0 0
21.157352 -8.3627787 0.52453065 59 0 0 0 0
21.16674 -8.3630142 0.88124287 71 0 0 0 0
21.151379 -8.4086123 0.54920214 39 0 0 0 0
21.159388 -8.4092016 0.90690327 17 0 0 0 0
21.137344 -8.452529 0.57445937 51 0 0 0 0
21.149401 -8.4541187 0.93136954 77 0 0 0 0
21.135885 -8.5007849 0.59746861 66 0 0 0 0
21.138103 -8.4995546 0.95483261 80 0 0 0 0
21.122807 -8.5453186 0.6207996 74 0 0 0 0
21.127695 -8.5454435 0.97836155 64 0 0 0 0
21.11421 -8.5921917 0.64346433 62 0 0 0 0
21.118179 -8.5917835 1.0019563 84 0 0 0 0
21.099855 -8.6373281 0.66479594 54 0 0 0 0
21.110052 -8.6400795 1.0237498 74 0 0 0 0
21.092619 -8.6860752 0.68665528 65 0 0 0 0
21.096558 -8.685586 1.0461433 79 0 0 0 0
21.08765 -8.7349205 0.70759147 36 0 0 0 0
21.085796 -8.7326107 1.0667425 68 0 0 0 0
21.070206 -8.7796736 0.72778773 52 0 0 0 0
21.075893 -8.7800055 1.0884037 85 0 0 0 0
21.058132 -8.827219 0.74738365 66 0 0 0 0
21.067381 -8.8293571 1.1082635 100 0 0 0 0
21.052778 -8.8771181 0.76638627 84 0 0 0 0
21.028997 -8.866847 1.1271846 6 0 0 0 0
21.045189 -8.9270029 0.78531575 75 0 0 0 0
21.036993 -8.9235182 1.147177 99 0 0 0 0
21.030027 -8.9741659 0.80377632 60 0 0 0 0
21.030731 -8.9751949 1.1662972 84 0 0 0 0
21.024254 -9.0250368 0.82184148 108 0 0 0 0
21.019598 -9.0255871 1.1841502 62 0 0 0 0
21.014044 -9.0759621 0.83876443 79 0 0 0 0
21.005362 -9.0732851 1.2016804 84 0 0 0 0
20.996716 -9.1232767 0.85515946 76 0 0 0 0
20.993406 -9.1233912 1.2174752 110 0 0 0 0
20.982981 -9.1724796 0.87082219 66 0 0 0 0
20.981855 -9.1747541 1.2343909 117 0 0 0 0
20.966143 -9.2189894 0.88616216 32 0 0 0 0
20.977913 -9.2289228 1.2507792 96 0 0 0 0
20.966225 -9.2763853 0.90194291 74 0 0 0 0
20.963726 -9.2790155 1.2665005 94 0 0 0 0
20.948999 -9.3239489 0.91534936 77 0 0 0 0
20.956692 -9.3328018 1.2817534 95 0 0 0 0
20.931772 -9.3715124 0.92875576 13 0 0 0 0
20.945242 -9.3844137 1.2956804 90 0 0 0 0
20.931036 -9.4286222 0.94247806 69 0 0 0 0
20.932449 -9.4364634 1.3096001 70 0 0 0 0
20.920977 -9.4821911 0.95460343 69 0 0 0 0
20.920145 -9.4877071 1.3224648 83 0 0 0 0
20.908703 -9.5335169 0.96647197 79 0 0 0 0
20.911381 -9.5429859 1.3357769 83 0 0 0 0
20.861692 -9.5671625 0.97676456 6 0 0 0 0
20.900871 -9.5974436 1.3479609 79 0 0 0 0
20.882862 -9.6390009 0.98839331 76 0 0 0 0
20.892176 -9.6528864 1.3592807 83 0 0 0 0
20.873762 -9.6931868 0.99859202 82 0 0 0 0
20.877686 -9.7065115 1.3702636 74 0 0 0 0
20.860651 -9.7464561 1.0085858 86 0 0 0 0
20.867243 -9.7611351 1.3804551 70 0 0 0 0
20.803949 -9.7753897 1.0151647 4 0 0 0 0
20.8608 -9.8189039 1.3910351 80 0 0 0 0
20.83585 -9.8550348 1.0257756 59 0 0 0 0
20.839291 -9.8691673 1.3985019 78 0 0 0 0
20.819241 -9.9066725 1.0335147 58 0 0 0 0
20.83153 -9.9274635 1.4080802 66 0 0 0 0
20.810659 -9.9646749 1.0410333 67 0 0 0 0
20.82206 -9.9850149 1.4155326 111 0 0 0 0
20.799007 -10.020067 1.0472329 68 0 0 0 0
20.803257 -10.036716 1.4222009 107 0 0 0 0
20.782906 -10.073203 1.0531029 10 0 0 0 0
20.795551 -10.097399 1.4299687 98 0 0 0 0
20.77483 -10.132711 1.0587536 43 0 0 0 0
20.783916 -10.155103 1.4353557 92 0 0 0 0
20.764116 -10.190948 1.0632104 40 0 0 0 0
20.773607 -10.214598 1.4409332 76 0 0 0 0
20.748064 -10.246479 1.0672715 53 0 0 0 0
20.751749 -10.266001 1.4454701 36 0 0 0 0
20.733826 -10.302996 1.0704683 50 0 0 0 0
20.743267 -10.328792 1.4493709 46 0 0 0 0
20.719622 -10.359594 1.0726689 48 0 0 0 0
20.729467 -10.386648 1.4526923 46 0 0 0 0
20.68807 -10.406283 1.0734922 21 0 0 0 0
20.674381 -10.415814 1.4513096 3 0 0 0 0
20.691229 -10.475103 1.0762573 38 0 0 0 0
20.69792 -10.501612 1.4571378 75 0 0 0 0
20.678852 -10.534999 1.076781 40 0 0 0 0
20.68862 -10.564118 1.45898 75 0 0 0 0
20.673176 -10.599473 1.0768945 74 0 0 0 0
20.674032 -10.621772 1.4592468 70 0 0 0 0
20.653734 -10.653615 1.0757109 50 0 0 0 0
20.661205 -10.682557 1.4598289 57 0 0 0 0
20.631624 -10.706404 1.0743295 20 0 0 0 0
20.643995 -10.741252 1.4580894 57 0 0 0 0
20.61668 -10.765194 1.0716666 8 0 0 0 0
20.631672 -10.803542 1.4568038 54 0 0 0 0
20.609303 -10.831247 1.0688442 37 0 0 0 0
20.619379 -10.865918 1.4545231 49 0 0 0 0
20.5975 -10.892814 1.0655075 48 0 0 0 0
20.604876 -10.926049 1.4519846 80 0 0 0 0
20.586166 -10.955802 1.0612993 59 0 0 0 0
20.591295 -10.986715 1.448516 78 0 0 0 0
20.533081 -10.984143 1.0538884 4 0 0 0 0
20.549809 -11.025541 1.4403367 6 0 0 0 0
20.555141 -11.074319 1.0499892 41 0 0 0 0
20.560656 -11.108718 1.4385101 75 0 0 0 0
20.53899 -11.133879 1.0433344 48 0 0 0 0
20.528522 -11.155705 1.430302 1 0 0 0 0
20.522417 -11.19441 1.0357422 38 0 0 0 0
20.532368 -11.233294 1.424776 41 0 0 0 0
20.476112 -11.229809 1.0251164 3 0 0 0 0
20.515345 -11.294715 1.4172425 31 0 0 0 0
20.496071 -11.320299 1.0171591 48 0 0 0 0
20.50235 -11.359363 1.4091011 13 0 0 0 0
20.481785 -11.383238 1.0078309 49 0 0 0 0
20.489845 -11.423203 1.3999046 60 0 0 0 0
